-0.911077 -1.274670 4.371197 0.000000 0.000000 0.000000 
-0.982882 -1.278841 4.379085 0.000000 0.000000 0.000000 
-1.192802 -1.260013 4.418821 0.000000 0.000000 0.000000 
-1.202459 -1.319553 4.429566 0.000000 0.000000 0.000000 
-1.332170 -1.291594 4.447285 0.000000 0.000000 0.000000 
-1.600941 -1.271610 4.476138 0.000000 0.000000 0.000000 
-1.600594 -1.271738 4.476262 0.000000 0.000000 0.000000 
-1.716974 -1.287708 4.491304 0.000000 0.000000 0.000000 
-1.842717 -1.296376 4.510000 0.000000 0.000000 0.000000 
0.659572 -1.307231 4.150942 0.000000 0.000000 0.000000 
0.301596 -1.312527 4.196551 0.000000 0.000000 0.000000 
-0.080533 -1.289743 4.223657 0.000000 0.000000 0.000000 
-0.427989 -1.019444 3.182683 0.000000 0.000000 0.000000 
-0.446163 -1.067766 3.190215 0.000000 0.000000 0.000000 
-0.455546 -0.995953 3.153314 0.000000 0.000000 0.000000 
-0.715021 -1.421218 4.261878 0.000000 0.000000 0.000000 
-0.881234 -1.354954 4.319597 0.000000 0.000000 0.000000 
-1.084890 -1.347862 4.394226 0.000000 0.000000 0.000000 
0.955150 -1.498807 4.155117 0.000000 0.000000 0.000000 
0.856292 -1.485605 4.153433 0.000000 0.000000 0.000000 
0.597098 -1.390535 4.086576 0.000000 0.000000 0.000000 
0.405920 -1.507408 4.237365 0.000000 0.000000 0.000000 
-0.343853 -1.568377 4.361976 0.000000 0.000000 0.000000 
-0.343573 -1.569008 4.363569 0.000000 0.000000 0.000000 
-1.225263 -1.661784 4.535465 0.000000 0.000000 0.000000 
-1.397932 -1.667828 4.564052 0.000000 0.000000 0.000000 
-1.534799 -1.683169 4.591314 0.000000 0.000000 0.000000 
-1.657137 -1.637886 4.596216 0.000000 0.000000 0.000000 
1.330878 -1.537603 4.090507 0.000000 0.000000 0.000000 
1.288590 -1.619368 4.121675 0.000000 0.000000 0.000000 
1.182719 -1.642521 4.152382 0.000000 0.000000 0.000000 
0.434394 -1.619035 4.257323 0.000000 0.000000 0.000000 
0.451803 -1.651470 4.256041 0.000000 0.000000 0.000000 
-0.186728 -1.699969 4.315245 0.000000 0.000000 0.000000 
-0.291999 -1.722054 4.389735 0.000000 0.000000 0.000000 
-0.802967 -1.718890 4.447620 0.000000 0.000000 0.000000 
-1.121087 -1.784455 4.540904 0.000000 0.000000 0.000000 
-1.123131 -1.789388 4.554864 0.000000 0.000000 0.000000 
-1.230909 -1.804862 4.572462 0.000000 0.000000 0.000000 
0.915471 0.820126 3.563694 0.000000 0.000000 0.000000 
-0.214775 -0.430420 2.912994 0.000000 0.000000 0.000000 
1.066702 1.165039 3.417604 0.000000 0.000000 0.000000 
-2.603420 1.748806 3.954543 0.000000 0.000000 0.000000 
0.369588 -0.871448 3.963448 0.000000 0.000000 0.000000 
-0.519016 1.179594 2.530381 0.000000 0.000000 0.000000 
-0.518400 1.178885 2.529289 0.000000 0.000000 0.000000 
0.697603 -0.352108 3.646023 0.000000 0.000000 0.000000 
1.172793 -1.322947 4.049550 0.000000 0.000000 0.000000 
1.172793 -1.322947 4.049550 0.000000 0.000000 0.000000 
-0.894018 -0.041621 2.976870 0.000000 0.000000 0.000000 
1.041315 -1.109421 4.026197 0.000000 0.000000 0.000000 
1.038772 -1.108306 4.004359 0.000000 0.000000 0.000000 
-0.300897 -1.113346 3.395856 0.000000 0.000000 0.000000 
0.908361 0.991065 3.531317 0.000000 0.000000 0.000000 
0.563590 -0.057575 3.881018 0.000000 0.000000 0.000000 
0.703443 -0.154188 3.822094 0.000000 0.000000 0.000000 
0.625865 -1.092457 4.084155 0.000000 0.000000 0.000000 
0.789828 1.294817 3.442517 0.000000 0.000000 0.000000 
0.100171 -0.030673 2.803706 0.000000 0.000000 0.000000 
0.099048 -0.030427 2.808117 0.000000 0.000000 0.000000 
-0.152496 -0.320648 2.879140 0.000000 0.000000 0.000000 
-0.384745 -1.555864 4.375995 0.000000 0.000000 0.000000 
0.277188 -1.545720 4.267315 0.000000 0.000000 0.000000 
-0.154124 -1.562240 4.331760 0.000000 0.000000 0.000000 
-0.864881 -2.032045 4.611206 0.000000 0.000000 0.000000 
-0.376683 1.199016 2.391044 0.000000 0.000000 0.000000 
0.072247 1.121415 2.505679 0.000000 0.000000 0.000000 
1.241957 1.276553 3.379053 0.000000 0.000000 0.000000 
1.245935 1.150812 3.410666 0.000000 0.000000 0.000000 
0.958665 1.123936 3.474702 0.000000 0.000000 0.000000 
0.896065 0.991445 3.532327 0.000000 0.000000 0.000000 
0.612560 1.031989 3.547703 0.000000 0.000000 0.000000 
0.588191 0.874181 3.593701 0.000000 0.000000 0.000000 
-2.793106 0.879584 4.668209 0.000000 0.000000 0.000000 
0.126479 0.044055 2.819447 0.000000 0.000000 0.000000 
-1.096717 -0.038391 2.978758 0.000000 0.000000 0.000000 
-0.081169 -0.391534 2.903955 0.000000 0.000000 0.000000 
1.330680 -1.158288 3.975182 0.000000 0.000000 0.000000 
-0.257901 -1.959926 4.483914 0.000000 0.000000 0.000000 
-0.629452 1.208842 2.326647 0.000000 0.000000 0.000000 
-0.603918 1.196510 2.380895 0.000000 0.000000 0.000000 
-1.040734 1.170664 2.520387 0.000000 0.000000 0.000000 
1.744016 1.336601 4.518935 0.000000 0.000000 0.000000 
0.811422 0.979665 3.504686 0.000000 0.000000 0.000000 
1.769690 1.044663 4.636262 0.000000 0.000000 0.000000 
-0.527240 -0.000639 2.891682 0.000000 0.000000 0.000000 
-0.787627 0.001260 2.930937 0.000000 0.000000 0.000000 
0.685599 -0.280850 3.868458 0.000000 0.000000 0.000000 
-0.709511 -0.293965 2.966813 0.000000 0.000000 0.000000 
0.077274 -0.338763 2.867607 0.000000 0.000000 0.000000 
0.989201 -0.556078 3.910778 0.000000 0.000000 0.000000 
0.150913 -0.718420 4.046087 0.000000 0.000000 0.000000 
-1.579286 -1.538341 4.535623 0.000000 0.000000 0.000000 
-0.690212 1.261415 2.298116 0.000000 0.000000 0.000000 
0.262530 1.224721 2.465493 0.000000 0.000000 0.000000 
-0.157822 1.171749 2.381589 0.000000 0.000000 0.000000 
-0.678860 1.183686 2.379743 0.000000 0.000000 0.000000 
-0.823260 1.195448 2.347016 0.000000 0.000000 0.000000 
0.532341 1.293470 3.115720 0.000000 0.000000 0.000000 
-1.125437 1.136303 2.571733 0.000000 0.000000 0.000000 
1.802958 1.479900 4.445290 0.000000 0.000000 0.000000 
-2.741524 1.467935 4.134852 0.000000 0.000000 0.000000 
0.559995 1.120259 3.532129 0.000000 0.000000 0.000000 
0.426826 1.113295 3.498395 0.000000 0.000000 0.000000 
-0.315626 0.801670 2.638809 0.000000 0.000000 0.000000 
1.942499 1.072700 4.583410 0.000000 0.000000 0.000000 
1.827491 1.080529 4.616281 0.000000 0.000000 0.000000 
0.761989 0.864045 3.572214 0.000000 0.000000 0.000000 
1.917369 0.910546 4.674293 0.000000 0.000000 0.000000 
2.085969 0.843427 4.612727 0.000000 0.000000 0.000000 
1.815113 0.582239 4.823019 0.000000 0.000000 0.000000 
-0.820974 0.257722 2.870308 0.000000 0.000000 0.000000 
0.501866 0.107032 3.811039 0.000000 0.000000 0.000000 
0.085392 0.001883 2.822117 0.000000 0.000000 0.000000 
-1.068380 0.025630 2.980727 0.000000 0.000000 0.000000 
0.808772 -0.062608 3.797702 0.000000 0.000000 0.000000 
-0.094219 -0.050028 2.826357 0.000000 0.000000 0.000000 
-0.094397 -0.050253 2.828907 0.000000 0.000000 0.000000 
0.763420 -0.234182 3.846605 0.000000 0.000000 0.000000 
0.812440 -0.264493 3.848673 0.000000 0.000000 0.000000 
1.159147 -0.358488 3.805138 0.000000 0.000000 0.000000 
0.331011 -0.479529 3.928201 0.000000 0.000000 0.000000 
0.797243 -0.626802 4.061642 0.000000 0.000000 0.000000 
0.348016 -0.750798 4.049745 0.000000 0.000000 0.000000 
-1.787163 -1.093665 4.446209 0.000000 0.000000 0.000000 
-1.803631 -1.214917 4.491177 0.000000 0.000000 0.000000 
0.515710 -1.031185 4.092184 0.000000 0.000000 0.000000 
0.515996 -1.031855 4.094874 0.000000 0.000000 0.000000 
-0.274597 -1.019236 3.151852 0.000000 0.000000 0.000000 
0.703881 -1.422893 4.091334 0.000000 0.000000 0.000000 
-0.650377 -1.762082 4.483381 0.000000 0.000000 0.000000 
0.834739 -1.790040 4.238063 0.000000 0.000000 0.000000 
-0.327857 1.203898 2.288500 0.000000 0.000000 0.000000 
-0.921507 1.268518 2.321739 0.000000 0.000000 0.000000 
0.828881 1.344593 2.955906 0.000000 0.000000 0.000000 
0.567182 1.314059 2.837597 0.000000 0.000000 0.000000 
0.105744 1.185732 2.445939 0.000000 0.000000 0.000000 
0.132687 1.139002 2.467340 0.000000 0.000000 0.000000 
-0.963339 1.173657 2.403555 0.000000 0.000000 0.000000 
-0.984409 1.179464 2.371346 0.000000 0.000000 0.000000 
-1.056355 1.188950 2.372466 0.000000 0.000000 0.000000 
-1.025028 1.160086 2.381901 0.000000 0.000000 0.000000 
-1.201774 1.193226 2.389970 0.000000 0.000000 0.000000 
-1.426231 1.251986 2.430508 0.000000 0.000000 0.000000 
0.102658 1.137013 2.478140 0.000000 0.000000 0.000000 
0.068059 1.098501 2.519137 0.000000 0.000000 0.000000 
-0.322099 1.101912 2.557012 0.000000 0.000000 0.000000 
-0.419460 1.102241 2.577026 0.000000 0.000000 0.000000 
-0.646715 1.134733 2.467886 0.000000 0.000000 0.000000 
-0.998045 1.125829 2.518442 0.000000 0.000000 0.000000 
-1.100038 1.089360 2.680279 0.000000 0.000000 0.000000 
-2.496240 1.640834 3.998142 0.000000 0.000000 0.000000 
1.943306 1.447692 4.420224 0.000000 0.000000 0.000000 
0.902541 1.247523 3.457425 0.000000 0.000000 0.000000 
0.902349 1.246405 3.456933 0.000000 0.000000 0.000000 
0.761992 1.181941 3.493046 0.000000 0.000000 0.000000 
0.341030 1.081296 3.125303 0.000000 0.000000 0.000000 
0.193865 0.933437 2.564898 0.000000 0.000000 0.000000 
-2.478491 1.303373 4.189826 0.000000 0.000000 0.000000 
-2.477117 1.301734 4.187118 0.000000 0.000000 0.000000 
-2.578824 1.294816 4.227129 0.000000 0.000000 0.000000 
1.048880 0.977686 3.494640 0.000000 0.000000 0.000000 
-2.695479 1.255148 4.257913 0.000000 0.000000 0.000000 
-2.658752 1.120269 4.325665 0.000000 0.000000 0.000000 
-2.661101 1.121251 4.330194 0.000000 0.000000 0.000000 
2.100235 1.066280 4.505882 0.000000 0.000000 0.000000 
0.538858 0.598888 3.691198 0.000000 0.000000 0.000000 
1.789793 0.645439 4.790728 0.000000 0.000000 0.000000 
-0.730328 0.294524 2.827896 0.000000 0.000000 0.000000 
0.158229 0.271214 2.735791 0.000000 0.000000 0.000000 
0.099339 0.252909 2.753859 0.000000 0.000000 0.000000 
-0.016990 0.165042 2.791475 0.000000 0.000000 0.000000 
-1.003251 0.110709 2.941588 0.000000 0.000000 0.000000 
0.262548 0.066211 2.781154 0.000000 0.000000 0.000000 
2.339314 -0.013053 5.625344 0.000000 0.000000 0.000000 
0.603471 -0.090550 3.836172 0.000000 0.000000 0.000000 
-0.940230 -0.057862 2.949756 0.000000 0.000000 0.000000 
-0.904567 -0.133554 2.947903 0.000000 0.000000 0.000000 
-0.881330 -0.177898 2.934112 0.000000 0.000000 0.000000 
-0.881330 -0.177898 2.934112 0.000000 0.000000 0.000000 
1.029832 -0.249443 3.807641 0.000000 0.000000 0.000000 
0.918874 -0.294260 3.838077 0.000000 0.000000 0.000000 
0.589294 -0.288578 3.890990 0.000000 0.000000 0.000000 
0.213836 -0.284222 2.814834 0.000000 0.000000 0.000000 
0.144305 -0.322233 2.834951 0.000000 0.000000 0.000000 
1.033618 -0.401640 3.840650 0.000000 0.000000 0.000000 
-0.007277 -0.397618 2.867590 0.000000 0.000000 0.000000 
1.118610 -0.529851 3.836199 0.000000 0.000000 0.000000 
0.516008 -0.527733 3.934809 0.000000 0.000000 0.000000 
-1.812394 -0.914477 4.390680 0.000000 0.000000 0.000000 
0.538296 -0.827696 4.053440 0.000000 0.000000 0.000000 
0.370258 -0.917406 4.090343 0.000000 0.000000 0.000000 
0.282851 -0.920445 4.104541 0.000000 0.000000 0.000000 
0.155111 -0.941842 4.137213 0.000000 0.000000 0.000000 
0.535370 -0.975602 4.094241 0.000000 0.000000 0.000000 
-0.411155 -0.958036 3.180782 0.000000 0.000000 0.000000 
-0.411155 -0.958036 3.180782 0.000000 0.000000 0.000000 
-1.324102 -1.440788 4.410227 0.000000 0.000000 0.000000 
-1.227123 -1.531034 4.492743 0.000000 0.000000 0.000000 
-1.602041 -1.435067 4.410820 0.000000 0.000000 0.000000 
0.211902 -1.420195 4.123626 0.000000 0.000000 0.000000 
-0.248505 -1.433517 4.226433 0.000000 0.000000 0.000000 
-0.211272 -1.514472 4.327447 0.000000 0.000000 0.000000 
-1.647734 -1.683298 4.588857 0.000000 0.000000 0.000000 
0.854697 -1.502925 4.177280 0.000000 0.000000 0.000000 
0.736812 -1.501779 4.187840 0.000000 0.000000 0.000000 
-0.396452 -1.636504 4.385820 0.000000 0.000000 0.000000 
-0.717506 -1.794002 4.471128 0.000000 0.000000 0.000000 
-1.265535 -1.754397 4.562921 0.000000 0.000000 0.000000 
1.317245 -1.420187 3.954342 0.000000 0.000000 0.000000 
0.638075 -1.673416 4.246693 0.000000 0.000000 0.000000 
0.354880 -1.739390 4.310209 0.000000 0.000000 0.000000 
0.186820 -1.792602 4.359633 0.000000 0.000000 0.000000 
-0.570320 -1.810471 4.511503 0.000000 0.000000 0.000000 
1.250269 -1.680998 4.146997 0.000000 0.000000 0.000000 
-0.353995 -2.038115 4.531762 0.000000 0.000000 0.000000 
-0.934493 -2.081365 4.594840 0.000000 0.000000 0.000000 
0.511750 -1.914143 4.315763 0.000000 0.000000 0.000000 
0.345143 -2.037519 4.422615 0.000000 0.000000 0.000000 
0.056111 -2.041861 4.452337 0.000000 0.000000 0.000000 
-0.392933 1.194748 2.299781 0.000000 0.000000 0.000000 
-0.685910 1.222616 2.322110 0.000000 0.000000 0.000000 
-0.686011 1.222934 2.322475 0.000000 0.000000 0.000000 
-0.717067 1.231065 2.325764 0.000000 0.000000 0.000000 
-0.801029 1.264134 2.316588 0.000000 0.000000 0.000000 
-1.184085 1.290197 2.324787 0.000000 0.000000 0.000000 
-1.279161 1.301107 2.377951 0.000000 0.000000 0.000000 
0.726302 1.342067 2.848978 0.000000 0.000000 0.000000 
-0.119543 1.165215 2.369535 0.000000 0.000000 0.000000 
-0.424166 1.188217 2.412910 0.000000 0.000000 0.000000 
-0.423699 1.187984 2.411367 0.000000 0.000000 0.000000 
-0.898705 1.178148 2.362356 0.000000 0.000000 0.000000 
-1.117453 1.192629 2.381269 0.000000 0.000000 0.000000 
-1.297385 1.218454 2.421658 0.000000 0.000000 0.000000 
-0.795353 1.138977 2.609866 0.000000 0.000000 0.000000 
-1.253081 1.183116 2.529831 0.000000 0.000000 0.000000 
-1.239795 1.176722 2.439303 0.000000 0.000000 0.000000 
-1.389752 1.199172 2.511243 0.000000 0.000000 0.000000 
-2.532252 1.728575 3.931443 0.000000 0.000000 0.000000 
-2.532252 1.728575 3.931443 0.000000 0.000000 0.000000 
-2.642005 1.690263 3.974553 0.000000 0.000000 0.000000 
0.586615 1.298403 3.499901 0.000000 0.000000 0.000000 
0.016660 1.046804 2.540758 0.000000 0.000000 0.000000 
-0.392487 1.022506 2.581303 0.000000 0.000000 0.000000 
-0.445450 1.023065 2.584510 0.000000 0.000000 0.000000 
-1.013233 1.091605 2.654792 0.000000 0.000000 0.000000 
-1.138919 1.071627 2.696902 0.000000 0.000000 0.000000 
-2.371997 1.575546 4.020244 0.000000 0.000000 0.000000 
-2.555756 1.660033 3.980958 0.000000 0.000000 0.000000 
1.975846 1.486668 4.401761 0.000000 0.000000 0.000000 
1.874321 1.537888 4.404282 0.000000 0.000000 0.000000 
1.874321 1.537888 4.404282 0.000000 0.000000 0.000000 
0.501877 1.203290 3.520530 0.000000 0.000000 0.000000 
-0.489939 0.905562 2.622792 0.000000 0.000000 0.000000 
1.756071 1.392325 4.491024 0.000000 0.000000 0.000000 
-0.405698 0.851697 2.627520 0.000000 0.000000 0.000000 
-0.457398 0.845128 2.634130 0.000000 0.000000 0.000000 
0.564889 1.042791 3.553053 0.000000 0.000000 0.000000 
-2.510788 1.144544 4.307261 0.000000 0.000000 0.000000 
0.964330 0.907255 3.528338 0.000000 0.000000 0.000000 
0.919542 0.881851 3.536222 0.000000 0.000000 0.000000 
-0.485655 0.697284 2.674057 0.000000 0.000000 0.000000 
-2.541037 1.030539 4.342583 0.000000 0.000000 0.000000 
1.947714 0.847389 4.690172 0.000000 0.000000 0.000000 
-1.930472 0.634307 4.005594 0.000000 0.000000 0.000000 
-1.930472 0.634307 4.005594 0.000000 0.000000 0.000000 
1.938255 0.730226 4.736569 0.000000 0.000000 0.000000 
1.799969 0.692484 4.776783 0.000000 0.000000 0.000000 
0.527485 0.516824 3.707068 0.000000 0.000000 0.000000 
0.516363 0.443479 3.720042 0.000000 0.000000 0.000000 
-0.192696 0.260683 2.772402 0.000000 0.000000 0.000000 
-0.133213 0.233343 2.791155 0.000000 0.000000 0.000000 
-0.343873 0.266473 2.777451 0.000000 0.000000 0.000000 
-0.725825 0.281211 2.823432 0.000000 0.000000 0.000000 
-0.862736 0.285915 2.874568 0.000000 0.000000 0.000000 
-0.080597 0.156582 2.814086 0.000000 0.000000 0.000000 
-0.156433 0.127646 2.819633 0.000000 0.000000 0.000000 
-0.824314 -0.012958 2.949189 0.000000 0.000000 0.000000 
0.011532 -0.031150 2.820222 0.000000 0.000000 0.000000 
-1.098163 -0.172211 3.005302 0.000000 0.000000 0.000000 
-1.098163 -0.172211 3.005302 0.000000 0.000000 0.000000 
0.566736 -0.146258 3.859181 0.000000 0.000000 0.000000 
0.166749 -0.172278 2.840349 0.000000 0.000000 0.000000 
0.079230 -0.173060 2.854273 0.000000 0.000000 0.000000 
-1.119480 -0.294282 3.002717 0.000000 0.000000 0.000000 
0.667994 -0.231096 3.866056 0.000000 0.000000 0.000000 
-0.371030 -0.361187 2.942447 0.000000 0.000000 0.000000 
-0.639304 -0.284367 2.936004 0.000000 0.000000 0.000000 
0.515215 -0.405086 3.936257 0.000000 0.000000 0.000000 
1.038401 -0.569918 3.898230 0.000000 0.000000 0.000000 
-1.812470 -0.748718 4.350891 0.000000 0.000000 0.000000 
1.098808 -0.644799 3.885517 0.000000 0.000000 0.000000 
0.327354 -0.793587 4.060394 0.000000 0.000000 0.000000 
-1.645354 -0.965504 4.415441 0.000000 0.000000 0.000000 
-1.670699 -1.026971 4.421001 0.000000 0.000000 0.000000 
-1.858914 -1.065094 4.442422 0.000000 0.000000 0.000000 
1.121357 -0.792860 3.943341 0.000000 0.000000 0.000000 
0.201694 -0.941526 4.114278 0.000000 0.000000 0.000000 
0.182598 -0.988419 4.137045 0.000000 0.000000 0.000000 
0.182917 -0.988069 4.135844 0.000000 0.000000 0.000000 
-1.119762 -1.054093 4.347703 0.000000 0.000000 0.000000 
-1.647330 -1.088641 4.428852 0.000000 0.000000 0.000000 
-1.883612 -1.116019 4.457809 0.000000 0.000000 0.000000 
-0.640091 -0.974487 3.329728 0.000000 0.000000 0.000000 
0.587256 -1.151700 4.129349 0.000000 0.000000 0.000000 
0.363053 -1.262167 4.173098 0.000000 0.000000 0.000000 
0.301445 -1.271563 4.175704 0.000000 0.000000 0.000000 
0.042956 -1.273825 4.220273 0.000000 0.000000 0.000000 
-0.391706 -1.001137 3.189601 0.000000 0.000000 0.000000 
-0.391494 -0.999630 3.184356 0.000000 0.000000 0.000000 
-0.451665 -1.047301 3.201407 0.000000 0.000000 0.000000 
1.107665 -1.207844 4.061085 0.000000 0.000000 0.000000 
0.553107 -1.306317 4.163970 0.000000 0.000000 0.000000 
0.331938 -1.311388 4.187847 0.000000 0.000000 0.000000 
-1.016616 -1.681882 4.481121 0.000000 0.000000 0.000000 
-1.707946 -1.649479 4.583152 0.000000 0.000000 0.000000 
-1.725133 -1.753116 4.628453 0.000000 0.000000 0.000000 
-1.725133 -1.753116 4.628453 0.000000 0.000000 0.000000 
-1.762459 -1.696537 4.603496 0.000000 0.000000 0.000000 
-1.761287 -1.695725 4.601670 0.000000 0.000000 0.000000 
-1.852883 -1.699063 4.625277 0.000000 0.000000 0.000000 
-1.855313 -1.699914 4.629204 0.000000 0.000000 0.000000 
0.735056 -1.497323 4.190219 0.000000 0.000000 0.000000 
0.606166 -1.562496 4.226812 0.000000 0.000000 0.000000 
-0.295768 -1.645382 4.370546 0.000000 0.000000 0.000000 
-0.678970 -1.687860 4.432446 0.000000 0.000000 0.000000 
-0.678998 -1.687940 4.432406 0.000000 0.000000 0.000000 
-0.946101 -1.691918 4.478052 0.000000 0.000000 0.000000 
-1.044981 -1.771360 4.531350 0.000000 0.000000 0.000000 
0.228205 -1.973727 4.392098 0.000000 0.000000 0.000000 
0.134742 -1.853519 4.379296 0.000000 0.000000 0.000000 
0.157989 -1.921843 4.375757 0.000000 0.000000 0.000000 
-0.447132 -2.033627 4.546638 0.000000 0.000000 0.000000 
0.404634 -2.010078 4.364457 0.000000 0.000000 0.000000 
-0.608052 1.257610 2.295592 0.000000 0.000000 0.000000 
-0.812352 1.247964 2.325901 0.000000 0.000000 0.000000 
-0.899323 1.251171 2.332364 0.000000 0.000000 0.000000 
-0.939681 1.247440 2.337065 0.000000 0.000000 0.000000 
0.862738 1.346485 2.966900 0.000000 0.000000 0.000000 
0.537669 1.317776 2.941741 0.000000 0.000000 0.000000 
0.451705 1.344521 2.941090 0.000000 0.000000 0.000000 
-0.090800 1.151417 2.404085 0.000000 0.000000 0.000000 
-0.130426 1.148224 2.391384 0.000000 0.000000 0.000000 
-0.194776 1.140200 2.404415 0.000000 0.000000 0.000000 
-0.743150 1.202975 2.334905 0.000000 0.000000 0.000000 
-0.792393 1.212411 2.337442 0.000000 0.000000 0.000000 
-1.053669 1.181917 2.379287 0.000000 0.000000 0.000000 
-1.161240 1.182938 2.391352 0.000000 0.000000 0.000000 
-1.248521 1.258436 2.387498 0.000000 0.000000 0.000000 
-1.321917 1.276991 2.409212 0.000000 0.000000 0.000000 
-1.365495 1.212276 2.438642 0.000000 0.000000 0.000000 
1.258785 1.392080 3.337607 0.000000 0.000000 0.000000 
0.134003 1.118128 2.488559 0.000000 0.000000 0.000000 
0.134554 1.118495 2.489407 0.000000 0.000000 0.000000 
0.165912 1.080945 2.501015 0.000000 0.000000 0.000000 
0.035455 1.086888 2.534274 0.000000 0.000000 0.000000 
-0.339223 1.122591 2.547076 0.000000 0.000000 0.000000 
-0.503752 1.144290 2.481555 0.000000 0.000000 0.000000 
-0.996324 1.132191 2.514019 0.000000 0.000000 0.000000 
0.955017 1.273719 3.447313 0.000000 0.000000 0.000000 
0.212453 0.994049 2.545029 0.000000 0.000000 0.000000 
0.044022 1.008147 2.565835 0.000000 0.000000 0.000000 
-0.685368 1.098495 2.620065 0.000000 0.000000 0.000000 
-0.743299 1.110768 2.614160 0.000000 0.000000 0.000000 
-1.240916 1.134543 2.662853 0.000000 0.000000 0.000000 
-2.621336 1.665142 3.998739 0.000000 0.000000 0.000000 
-2.339867 1.424366 4.104483 0.000000 0.000000 0.000000 
-2.708451 1.477237 4.122032 0.000000 0.000000 0.000000 
2.006049 1.412055 4.413052 0.000000 0.000000 0.000000 
1.783016 1.445859 4.468074 0.000000 0.000000 0.000000 
1.790355 1.374207 4.498391 0.000000 0.000000 0.000000 
1.270322 1.057160 3.433987 0.000000 0.000000 0.000000 
0.950537 1.043403 3.498444 0.000000 0.000000 0.000000 
0.167305 0.843320 2.589637 0.000000 0.000000 0.000000 
-2.568809 1.395118 4.157035 0.000000 0.000000 0.000000 
-2.568512 1.396587 4.156266 0.000000 0.000000 0.000000 
-2.546880 1.329717 4.195584 0.000000 0.000000 0.000000 
-2.546845 1.329860 4.195655 0.000000 0.000000 0.000000 
1.767883 1.279624 4.541454 0.000000 0.000000 0.000000 
1.803308 1.244554 4.556176 0.000000 0.000000 0.000000 
1.241006 1.005594 3.454546 0.000000 0.000000 0.000000 
-0.351132 0.749097 2.650691 0.000000 0.000000 0.000000 
-0.350764 0.748242 2.650261 0.000000 0.000000 0.000000 
-0.403012 0.746808 2.655129 0.000000 0.000000 0.000000 
-0.447557 0.717167 2.664783 0.000000 0.000000 0.000000 
-0.447687 0.717382 2.664813 0.000000 0.000000 0.000000 
2.045922 1.149039 4.497961 0.000000 0.000000 0.000000 
1.701847 1.147353 4.600148 0.000000 0.000000 0.000000 
1.616050 1.073856 4.625635 0.000000 0.000000 0.000000 
0.547487 0.919977 3.585091 0.000000 0.000000 0.000000 
-0.357417 0.679630 2.667399 0.000000 0.000000 0.000000 
-0.357803 0.679025 2.668964 0.000000 0.000000 0.000000 
-0.355532 0.633252 2.677456 0.000000 0.000000 0.000000 
-0.444347 0.679105 2.677400 0.000000 0.000000 0.000000 
-0.444316 0.679024 2.677343 0.000000 0.000000 0.000000 
-0.440777 0.632783 2.688552 0.000000 0.000000 0.000000 
-0.440816 0.635650 2.686862 0.000000 0.000000 0.000000 
-1.922880 0.879798 3.937705 0.000000 0.000000 0.000000 
-1.930478 0.915718 3.928683 0.000000 0.000000 0.000000 
-2.455264 1.101906 4.310673 0.000000 0.000000 0.000000 
1.651838 1.023706 4.663401 0.000000 0.000000 0.000000 
1.652184 1.023135 4.666043 0.000000 0.000000 0.000000 
0.404136 0.786267 3.534767 0.000000 0.000000 0.000000 
-0.396128 0.602411 2.692880 0.000000 0.000000 0.000000 
-1.949567 0.858931 3.949282 0.000000 0.000000 0.000000 
2.020522 0.838828 4.653985 0.000000 0.000000 0.000000 
-0.390137 0.485719 2.728268 0.000000 0.000000 0.000000 
-0.341734 0.409766 2.741289 0.000000 0.000000 0.000000 
-0.430108 0.409416 2.753630 0.000000 0.000000 0.000000 
2.083766 0.578777 4.634872 0.000000 0.000000 0.000000 
-0.319006 0.305049 2.764307 0.000000 0.000000 0.000000 
-0.319842 0.305241 2.765541 0.000000 0.000000 0.000000 
-0.407081 0.325996 2.770063 0.000000 0.000000 0.000000 
-0.523695 0.389593 2.766134 0.000000 0.000000 0.000000 
-0.533713 0.300446 2.794095 0.000000 0.000000 0.000000 
0.731940 0.378590 3.697631 0.000000 0.000000 0.000000 
0.082682 0.211709 2.770567 0.000000 0.000000 0.000000 
0.000723 0.212219 2.772463 0.000000 0.000000 0.000000 
-1.887724 0.330537 4.075098 0.000000 0.000000 0.000000 
0.491167 0.261400 3.775355 0.000000 0.000000 0.000000 
-0.033929 0.139081 2.795265 0.000000 0.000000 0.000000 
-1.065799 0.135994 2.962818 0.000000 0.000000 0.000000 
0.277679 0.012268 2.776822 0.000000 0.000000 0.000000 
0.257850 0.034843 2.780294 0.000000 0.000000 0.000000 
0.208886 0.085239 2.777530 0.000000 0.000000 0.000000 
0.184352 0.079770 2.783036 0.000000 0.000000 0.000000 
0.158027 -0.001328 2.814022 0.000000 0.000000 0.000000 
0.074380 -0.002299 2.829065 0.000000 0.000000 0.000000 
-0.088818 0.083660 2.829145 0.000000 0.000000 0.000000 
-0.062873 -0.004450 2.843047 0.000000 0.000000 0.000000 
-0.773775 -0.021816 2.945182 0.000000 0.000000 0.000000 
2.243114 -0.017580 5.628086 0.000000 0.000000 0.000000 
0.121183 -0.071470 2.808152 0.000000 0.000000 0.000000 
-0.841720 -0.068299 2.922943 0.000000 0.000000 0.000000 
-0.846538 -0.149247 2.939720 0.000000 0.000000 0.000000 
-0.898756 -0.146090 2.940444 0.000000 0.000000 0.000000 
-0.799442 -0.262596 2.959981 0.000000 0.000000 0.000000 
-0.868928 -0.171860 2.943614 0.000000 0.000000 0.000000 
0.572842 -0.341932 3.908352 0.000000 0.000000 0.000000 
0.572629 -0.341945 3.909249 0.000000 0.000000 0.000000 
0.442183 -0.318054 3.932536 0.000000 0.000000 0.000000 
-0.196157 -0.257326 2.876019 0.000000 0.000000 0.000000 
0.554784 -0.435840 3.928481 0.000000 0.000000 0.000000 
0.554427 -0.436514 3.931773 0.000000 0.000000 0.000000 
0.487143 -0.435524 3.937853 0.000000 0.000000 0.000000 
0.318719 -0.501850 3.967159 0.000000 0.000000 0.000000 
0.032417 -0.388051 2.858579 0.000000 0.000000 0.000000 
0.057353 -0.398200 2.849674 0.000000 0.000000 0.000000 
0.057360 -0.398713 2.849485 0.000000 0.000000 0.000000 
-0.548646 -0.478594 2.983435 0.000000 0.000000 0.000000 
-0.598717 -0.413000 2.987158 0.000000 0.000000 0.000000 
0.944364 -0.525379 3.871061 0.000000 0.000000 0.000000 
0.748367 -0.527503 3.904254 0.000000 0.000000 0.000000 
0.437348 -0.629414 4.005355 0.000000 0.000000 0.000000 
0.275363 -0.675161 4.041935 0.000000 0.000000 0.000000 
0.365351 -0.683626 4.028898 0.000000 0.000000 0.000000 
0.289143 -0.758268 4.054845 0.000000 0.000000 0.000000 
-0.963217 -0.951003 4.292713 0.000000 0.000000 0.000000 
-0.943903 -0.992045 4.298798 0.000000 0.000000 0.000000 
1.175642 -0.980379 3.961418 0.000000 0.000000 0.000000 
0.096348 -1.117280 4.179724 0.000000 0.000000 0.000000 
0.147588 -1.140546 4.176131 0.000000 0.000000 0.000000 
-0.481880 -0.961983 3.178562 0.000000 0.000000 0.000000 
-0.482056 -0.962602 3.179610 0.000000 0.000000 0.000000 
-1.691719 -1.346845 4.469759 0.000000 0.000000 0.000000 
-1.659111 -1.373399 4.467542 0.000000 0.000000 0.000000 
-1.960459 -1.375828 4.510692 0.000000 0.000000 0.000000 
1.260214 -1.096672 3.995572 0.000000 0.000000 0.000000 
0.018948 -1.314263 4.235403 0.000000 0.000000 0.000000 
-0.486582 -1.030521 3.204464 0.000000 0.000000 0.000000 
-1.136002 -1.366317 4.387117 0.000000 0.000000 0.000000 
1.147717 -1.259155 4.060982 0.000000 0.000000 0.000000 
1.147407 -1.260657 4.060294 0.000000 0.000000 0.000000 
0.211107 -1.312084 4.208153 0.000000 0.000000 0.000000 
-1.618989 -1.653918 4.600737 0.000000 0.000000 0.000000 
-1.683338 -1.769158 4.712296 0.000000 0.000000 0.000000 
1.191043 -1.331099 4.025850 0.000000 0.000000 0.000000 
0.698815 -1.519943 4.199284 0.000000 0.000000 0.000000 
-0.482865 -1.647748 4.396718 0.000000 0.000000 0.000000 
-0.512954 -1.735191 4.433077 0.000000 0.000000 0.000000 
-0.982238 -1.740924 4.509142 0.000000 0.000000 0.000000 
0.888655 -1.542163 4.176896 0.000000 0.000000 0.000000 
0.812675 -1.545510 4.188134 0.000000 0.000000 0.000000 
0.455460 -1.729215 4.288502 0.000000 0.000000 0.000000 
-0.672170 -1.983718 4.552764 0.000000 0.000000 0.000000 
-0.918760 -1.981197 4.577926 0.000000 0.000000 0.000000 
1.384349 -1.645901 4.115777 0.000000 0.000000 0.000000 
0.563589 -1.792646 4.297462 0.000000 0.000000 0.000000 
0.621572 -1.858538 4.304820 0.000000 0.000000 0.000000 
-0.253191 -1.930462 4.446959 0.000000 0.000000 0.000000 
-0.706282 -2.013564 4.557494 0.000000 0.000000 0.000000 
1.365355 -1.795849 4.235237 0.000000 0.000000 0.000000 
0.239571 -2.099682 4.443963 0.000000 0.000000 0.000000 
0.121738 -2.058526 4.455550 0.000000 0.000000 0.000000 
-0.228868 1.209243 2.350232 0.000000 0.000000 0.000000 
-0.360769 1.200476 2.289053 0.000000 0.000000 0.000000 
-0.427758 1.213789 2.291317 0.000000 0.000000 0.000000 
-0.582087 1.249152 2.296394 0.000000 0.000000 0.000000 
-1.119061 1.272043 2.360098 0.000000 0.000000 0.000000 
-1.173380 1.295605 2.353237 0.000000 0.000000 0.000000 
-1.171365 1.293969 2.348755 0.000000 0.000000 0.000000 
0.916009 1.343085 3.006437 0.000000 0.000000 0.000000 
0.587891 1.320693 2.854529 0.000000 0.000000 0.000000 
0.269205 1.177850 2.475996 0.000000 0.000000 0.000000 
-0.039334 1.165642 2.422791 0.000000 0.000000 0.000000 
-0.083365 1.189846 2.355845 0.000000 0.000000 0.000000 
-0.542005 1.168918 2.435996 0.000000 0.000000 0.000000 
-0.692784 1.187904 2.331876 0.000000 0.000000 0.000000 
-0.806160 1.190424 2.466511 0.000000 0.000000 0.000000 
-0.925542 1.181963 2.374020 0.000000 0.000000 0.000000 
-1.201918 1.238357 2.378610 0.000000 0.000000 0.000000 
-1.158549 1.200580 2.391254 0.000000 0.000000 0.000000 
-1.368801 1.277611 2.416060 0.000000 0.000000 0.000000 
-1.313026 1.196138 2.466880 0.000000 0.000000 0.000000 
1.105526 1.361956 3.369266 0.000000 0.000000 0.000000 
1.064038 1.357758 3.363106 0.000000 0.000000 0.000000 
0.973644 1.358927 3.114802 0.000000 0.000000 0.000000 
0.501914 1.295619 3.066215 0.000000 0.000000 0.000000 
0.253232 1.116925 2.482650 0.000000 0.000000 0.000000 
-0.080261 1.151149 2.510177 0.000000 0.000000 0.000000 
-0.401673 1.137743 2.430983 0.000000 0.000000 0.000000 
-0.401569 1.137761 2.430800 0.000000 0.000000 0.000000 
-0.573911 1.150504 2.574049 0.000000 0.000000 0.000000 
-0.769869 1.165544 2.471311 0.000000 0.000000 0.000000 
-0.751596 1.133570 2.498356 0.000000 0.000000 0.000000 
-0.860194 1.139746 2.494291 0.000000 0.000000 0.000000 
-1.408064 1.186566 2.476128 0.000000 0.000000 0.000000 
-2.525190 1.690668 3.998476 0.000000 0.000000 0.000000 
-2.525190 1.690668 3.998476 0.000000 0.000000 0.000000 
-2.659185 1.732739 3.949256 0.000000 0.000000 0.000000 
1.202309 1.283189 3.388064 0.000000 0.000000 0.000000 
1.200819 1.282199 3.385107 0.000000 0.000000 0.000000 
0.619882 1.305397 3.476903 0.000000 0.000000 0.000000 
0.480194 1.316730 3.497954 0.000000 0.000000 0.000000 
0.316365 1.140140 2.981834 0.000000 0.000000 0.000000 
0.237218 1.042440 2.524748 0.000000 0.000000 0.000000 
0.126761 1.032349 2.551422 0.000000 0.000000 0.000000 
-0.133403 1.081751 2.560414 0.000000 0.000000 0.000000 
-0.200845 1.032039 2.583674 0.000000 0.000000 0.000000 
-0.243887 1.085034 2.557567 0.000000 0.000000 0.000000 
-0.311232 1.052001 2.572019 0.000000 0.000000 0.000000 
-0.867076 1.101621 2.637668 0.000000 0.000000 0.000000 
-1.030662 1.097999 2.654791 0.000000 0.000000 0.000000 
-1.149479 1.099938 2.668316 0.000000 0.000000 0.000000 
-1.356542 1.135822 2.680316 0.000000 0.000000 0.000000 
1.972998 1.478167 4.409644 0.000000 0.000000 0.000000 
1.793415 1.537036 4.421766 0.000000 0.000000 0.000000 
1.762902 1.461084 4.458694 0.000000 0.000000 0.000000 
1.203430 1.231440 3.398706 0.000000 0.000000 0.000000 
1.075733 1.213202 3.426465 0.000000 0.000000 0.000000 
0.999708 1.200743 3.449665 0.000000 0.000000 0.000000 
0.834012 1.163846 3.495751 0.000000 0.000000 0.000000 
0.499366 1.264044 3.514220 0.000000 0.000000 0.000000 
0.499366 1.264044 3.514220 0.000000 0.000000 0.000000 
0.542413 1.245165 3.511974 0.000000 0.000000 0.000000 
0.562859 1.201233 3.524451 0.000000 0.000000 0.000000 
0.543132 1.174003 3.529090 0.000000 0.000000 0.000000 
0.453988 1.244898 3.524897 0.000000 0.000000 0.000000 
0.235775 0.907189 2.567633 0.000000 0.000000 0.000000 
-2.251329 1.483992 4.056446 0.000000 0.000000 0.000000 
-2.551455 1.523733 4.078915 0.000000 0.000000 0.000000 
-2.600857 1.437601 4.134304 0.000000 0.000000 0.000000 
-2.702505 1.428414 4.158227 0.000000 0.000000 0.000000 
1.953244 1.310399 4.495190 0.000000 0.000000 0.000000 
1.953244 1.310399 4.495190 0.000000 0.000000 0.000000 
1.759560 1.432331 4.471002 0.000000 0.000000 0.000000 
0.845999 1.128109 3.491084 0.000000 0.000000 0.000000 
0.795524 1.138215 3.495263 0.000000 0.000000 0.000000 
0.268815 0.828196 2.673801 0.000000 0.000000 0.000000 
0.240261 0.824718 2.587773 0.000000 0.000000 0.000000 
-0.519471 0.841014 2.638975 0.000000 0.000000 0.000000 
-0.519463 0.840874 2.638965 0.000000 0.000000 0.000000 
-1.249976 0.865701 2.787008 0.000000 0.000000 0.000000 
-2.425449 1.395572 4.128804 0.000000 0.000000 0.000000 
-2.425692 1.362455 4.160398 0.000000 0.000000 0.000000 
-2.315285 1.292546 4.177619 0.000000 0.000000 0.000000 
1.979753 1.287510 4.492394 0.000000 0.000000 0.000000 
0.994443 1.021756 3.501618 0.000000 0.000000 0.000000 
-2.522624 1.212968 4.254874 0.000000 0.000000 0.000000 
-2.556869 1.194397 4.268658 0.000000 0.000000 0.000000 
-2.540522 1.113491 4.325717 0.000000 0.000000 0.000000 
2.032975 1.073282 4.541290 0.000000 0.000000 0.000000 
1.790867 1.065191 4.622228 0.000000 0.000000 0.000000 
1.680513 1.072527 4.635874 0.000000 0.000000 0.000000 
1.645258 1.054831 4.644826 0.000000 0.000000 0.000000 
1.645353 1.056209 4.644944 0.000000 0.000000 0.000000 
0.897087 0.814951 3.557199 0.000000 0.000000 0.000000 
0.679053 0.893028 3.574290 0.000000 0.000000 0.000000 
0.735579 0.838201 3.575696 0.000000 0.000000 0.000000 
0.655183 0.830214 3.593427 0.000000 0.000000 0.000000 
-2.421749 1.004899 4.369667 0.000000 0.000000 0.000000 
-2.421771 1.005037 4.369806 0.000000 0.000000 0.000000 
-2.489411 0.998154 4.371042 0.000000 0.000000 0.000000 
-2.593535 1.048981 4.372046 0.000000 0.000000 0.000000 
-2.771247 1.034205 4.402495 0.000000 0.000000 0.000000 
0.549280 0.802218 3.618683 0.000000 0.000000 0.000000 
-1.218891 0.608915 2.846269 0.000000 0.000000 0.000000 
0.630879 0.585465 3.656156 0.000000 0.000000 0.000000 
-0.504196 0.465338 2.739956 0.000000 0.000000 0.000000 
1.805866 0.731037 4.760191 0.000000 0.000000 0.000000 
1.188489 0.522317 3.564749 0.000000 0.000000 0.000000 
0.578171 0.444400 3.704419 0.000000 0.000000 0.000000 
-0.516127 0.354817 2.777445 0.000000 0.000000 0.000000 
0.503740 0.384209 3.733080 0.000000 0.000000 0.000000 
-0.079082 0.222574 2.781400 0.000000 0.000000 0.000000 
-0.691200 0.233639 2.858989 0.000000 0.000000 0.000000 
-0.758274 0.264930 2.840866 0.000000 0.000000 0.000000 
1.979957 0.407415 4.671799 0.000000 0.000000 0.000000 
1.796273 0.370844 4.722187 0.000000 0.000000 0.000000 
0.651584 0.292361 3.732484 0.000000 0.000000 0.000000 
0.426745 0.276355 3.683406 0.000000 0.000000 0.000000 
0.086010 0.130473 2.792479 0.000000 0.000000 0.000000 
-0.125313 0.104185 2.826133 0.000000 0.000000 0.000000 
-0.666913 0.166493 2.871793 0.000000 0.000000 0.000000 
-0.946626 0.103163 2.932504 0.000000 0.000000 0.000000 
-1.026238 0.136902 2.938905 0.000000 0.000000 0.000000 
-1.026141 0.137274 2.938938 0.000000 0.000000 0.000000 
-1.964969 0.136276 4.141005 0.000000 0.000000 0.000000 
0.275504 0.055547 2.776579 0.000000 0.000000 0.000000 
0.273614 0.056120 2.779993 0.000000 0.000000 0.000000 
-0.099576 0.033400 2.840131 0.000000 0.000000 0.000000 
-0.089302 -0.015330 2.852551 0.000000 0.000000 0.000000 
-1.209408 -0.004011 3.005068 0.000000 0.000000 0.000000 
-1.236437 -0.003310 3.024534 0.000000 0.000000 0.000000 
-1.195896 -0.025965 3.003491 0.000000 0.000000 0.000000 
0.689267 -0.029207 3.811702 0.000000 0.000000 0.000000 
0.601967 -0.008218 3.822200 0.000000 0.000000 0.000000 
0.301779 -0.097360 2.786787 0.000000 0.000000 0.000000 
0.134020 -0.006480 2.828157 0.000000 0.000000 0.000000 
-0.162855 -0.128100 2.856034 0.000000 0.000000 0.000000 
-0.830037 -0.088204 2.944112 0.000000 0.000000 0.000000 
-1.104254 -0.087693 2.976158 0.000000 0.000000 0.000000 
-1.215950 -0.087899 3.006536 0.000000 0.000000 0.000000 
-1.252552 -0.083667 3.006597 0.000000 0.000000 0.000000 
0.613213 -0.127533 3.851997 0.000000 0.000000 0.000000 
0.360610 -0.178491 3.909683 0.000000 0.000000 0.000000 
0.302852 -0.126283 2.787535 0.000000 0.000000 0.000000 
0.289204 -0.143378 2.789729 0.000000 0.000000 0.000000 
0.266224 -0.196868 2.830100 0.000000 0.000000 0.000000 
0.052467 -0.196139 2.865730 0.000000 0.000000 0.000000 
-0.050932 -0.145843 2.840659 0.000000 0.000000 0.000000 
-0.050932 -0.145843 2.840659 0.000000 0.000000 0.000000 
-0.872809 -0.215049 2.949544 0.000000 0.000000 0.000000 
2.027200 -0.245014 5.000060 0.000000 0.000000 0.000000 
0.517528 -0.245726 3.894683 0.000000 0.000000 0.000000 
0.262284 -0.260382 2.809904 0.000000 0.000000 0.000000 
-1.003381 -0.348310 3.003314 0.000000 0.000000 0.000000 
0.969991 -0.363110 3.845974 0.000000 0.000000 0.000000 
0.527874 -0.439383 3.939285 0.000000 0.000000 0.000000 
0.486099 -0.460372 3.925319 0.000000 0.000000 0.000000 
0.489367 -0.501176 3.930955 0.000000 0.000000 0.000000 
0.314552 -0.457704 3.918573 0.000000 0.000000 0.000000 
-0.445646 -0.378097 2.960177 0.000000 0.000000 0.000000 
-0.560900 -0.402527 2.984678 0.000000 0.000000 0.000000 
-1.689404 -0.718560 4.345045 0.000000 0.000000 0.000000 
-1.809700 -0.701118 4.341236 0.000000 0.000000 0.000000 
-1.876655 -0.636220 4.333982 0.000000 0.000000 0.000000 
0.659214 -0.592929 3.995284 0.000000 0.000000 0.000000 
0.459174 -0.650894 4.012962 0.000000 0.000000 0.000000 
0.321319 -0.600993 4.018580 0.000000 0.000000 0.000000 
0.402948 -0.649091 4.019733 0.000000 0.000000 0.000000 
-0.965994 -0.893128 4.281212 0.000000 0.000000 0.000000 
-1.727003 -1.064240 4.426785 0.000000 0.000000 0.000000 
1.150469 -0.790006 3.924564 0.000000 0.000000 0.000000 
0.501168 -0.925811 4.079631 0.000000 0.000000 0.000000 
-1.768361 -1.165771 4.454039 0.000000 0.000000 0.000000 
1.328830 -0.931549 3.935407 0.000000 0.000000 0.000000 
0.229754 -1.080467 4.146007 0.000000 0.000000 0.000000 
0.186683 -1.140112 4.178793 0.000000 0.000000 0.000000 
0.044210 -1.122047 4.192056 0.000000 0.000000 0.000000 
0.044557 -1.121730 4.190274 0.000000 0.000000 0.000000 
-0.452823 -0.991379 3.178627 0.000000 0.000000 0.000000 
-0.452775 -0.991192 3.178878 0.000000 0.000000 0.000000 
-1.173640 -1.344918 4.408828 0.000000 0.000000 0.000000 
-1.408601 -1.318646 4.460649 0.000000 0.000000 0.000000 
-1.408634 -1.318837 4.460722 0.000000 0.000000 0.000000 
-1.519980 -1.344721 4.461505 0.000000 0.000000 0.000000 
-1.429687 -1.370864 4.444457 0.000000 0.000000 0.000000 
-1.555063 -1.318594 4.478894 0.000000 0.000000 0.000000 
-1.600124 -1.350374 4.488952 0.000000 0.000000 0.000000 
-1.538362 -1.368756 4.441006 0.000000 0.000000 0.000000 
-1.846751 -1.323908 4.523991 0.000000 0.000000 0.000000 
0.656663 -1.189948 4.132213 0.000000 0.000000 0.000000 
-0.237457 -1.295086 4.272244 0.000000 0.000000 0.000000 
-0.193080 -1.317513 4.267715 0.000000 0.000000 0.000000 
-0.219954 -1.339346 4.253339 0.000000 0.000000 0.000000 
-0.319689 -1.002708 3.166090 0.000000 0.000000 0.000000 
-0.563969 -1.408688 4.264920 0.000000 0.000000 0.000000 
-0.594761 -1.031077 3.228629 0.000000 0.000000 0.000000 
-1.131493 -1.424729 4.386066 0.000000 0.000000 0.000000 
-1.412156 -1.557630 4.528683 0.000000 0.000000 0.000000 
-1.512881 -1.585943 4.554633 0.000000 0.000000 0.000000 
-1.835338 -1.620970 4.602698 0.000000 0.000000 0.000000 
1.002857 -1.287416 4.087732 0.000000 0.000000 0.000000 
-0.016680 -1.379329 4.182593 0.000000 0.000000 0.000000 
-0.307742 -1.406302 4.224816 0.000000 0.000000 0.000000 
-0.896570 -1.656501 4.465044 0.000000 0.000000 0.000000 
-1.253713 -1.587759 4.516294 0.000000 0.000000 0.000000 
1.123172 -1.399371 3.995256 0.000000 0.000000 0.000000 
0.980739 -1.397532 4.027728 0.000000 0.000000 0.000000 
0.778097 -1.371658 4.067362 0.000000 0.000000 0.000000 
-0.829145 -1.653073 4.449825 0.000000 0.000000 0.000000 
-1.175882 -1.735662 4.548907 0.000000 0.000000 0.000000 
-1.076604 -1.814739 4.549368 0.000000 0.000000 0.000000 
-1.757032 -2.011087 4.761290 0.000000 0.000000 0.000000 
1.371127 -1.529751 4.091387 0.000000 0.000000 0.000000 
1.254536 -1.432129 3.965311 0.000000 0.000000 0.000000 
1.217569 -1.595676 4.127587 0.000000 0.000000 0.000000 
1.051387 -1.640850 4.177789 0.000000 0.000000 0.000000 
0.208194 -1.770856 4.348734 0.000000 0.000000 0.000000 
-0.447096 -1.889319 4.465624 0.000000 0.000000 0.000000 
-0.955268 -2.020866 4.599115 0.000000 0.000000 0.000000 
1.369225 -1.622686 4.110650 0.000000 0.000000 0.000000 
0.672510 -1.741678 4.264604 0.000000 0.000000 0.000000 
0.423592 -1.864356 4.334683 0.000000 0.000000 0.000000 
0.018586 -1.970826 4.432571 0.000000 0.000000 0.000000 
-0.213094 -2.072264 4.516371 0.000000 0.000000 0.000000 
-0.212214 -2.072376 4.515600 0.000000 0.000000 0.000000 
-0.413804 -2.015010 4.515251 0.000000 0.000000 0.000000 
-0.452942 -2.046857 4.519447 0.000000 0.000000 0.000000 
-0.466935 -2.084306 4.558929 0.000000 0.000000 0.000000 
-0.572991 -1.971632 4.520938 0.000000 0.000000 0.000000 
-0.614874 -2.133492 4.575535 0.000000 0.000000 0.000000 
0.303734 -2.066127 4.423058 0.000000 0.000000 0.000000 
0.045068 -2.112761 4.478061 0.000000 0.000000 0.000000 
0.045061 -2.112434 4.477108 0.000000 0.000000 0.000000 
0.152801 -2.124934 4.461921 0.000000 0.000000 0.000000 
-0.237055 -2.118740 4.519961 0.000000 0.000000 0.000000 
-0.230042 -2.210710 4.541171 0.000000 0.000000 0.000000 
0.106385 1.191608 2.248553 0.000000 0.000000 0.000000 
-0.544140 1.223078 2.300689 0.000000 0.000000 0.000000 
-0.832051 1.268343 2.316957 0.000000 0.000000 0.000000 
-0.859397 1.269231 2.320138 0.000000 0.000000 0.000000 
-0.879726 1.267158 2.322011 0.000000 0.000000 0.000000 
-1.025409 1.276287 2.335581 0.000000 0.000000 0.000000 
-1.006509 1.241315 2.351394 0.000000 0.000000 0.000000 
-1.142456 1.293066 2.327970 0.000000 0.000000 0.000000 
-1.144780 1.287462 2.355690 0.000000 0.000000 0.000000 
-1.413556 1.310277 2.418192 0.000000 0.000000 0.000000 
0.774372 1.331763 2.900431 0.000000 0.000000 0.000000 
0.250599 1.201796 2.451027 0.000000 0.000000 0.000000 
0.054637 1.175700 2.404697 0.000000 0.000000 0.000000 
-0.048179 1.189631 2.379607 0.000000 0.000000 0.000000 
-0.136275 1.190681 2.359726 0.000000 0.000000 0.000000 
-0.136275 1.190681 2.359726 0.000000 0.000000 0.000000 
-0.123681 1.159090 2.377402 0.000000 0.000000 0.000000 
-0.326453 1.195556 2.366907 0.000000 0.000000 0.000000 
-0.625024 1.193683 2.442688 0.000000 0.000000 0.000000 
-0.670517 1.187302 2.330491 0.000000 0.000000 0.000000 
-0.765070 1.186860 2.342289 0.000000 0.000000 0.000000 
-0.789660 1.200618 2.459054 0.000000 0.000000 0.000000 
-0.779212 1.178529 2.348173 0.000000 0.000000 0.000000 
-1.092752 1.216506 2.367148 0.000000 0.000000 0.000000 
-1.013296 1.176381 2.372844 0.000000 0.000000 0.000000 
-1.143534 1.225832 2.379220 0.000000 0.000000 0.000000 
-1.159960 1.221258 2.380947 0.000000 0.000000 0.000000 
-1.381123 1.263231 2.417962 0.000000 0.000000 0.000000 
1.257021 1.367656 3.330463 0.000000 0.000000 0.000000 
1.257737 1.368221 3.332307 0.000000 0.000000 0.000000 
0.498274 1.306542 2.944445 0.000000 0.000000 0.000000 
0.208363 1.128813 2.478745 0.000000 0.000000 0.000000 
0.043736 1.103335 2.521626 0.000000 0.000000 0.000000 
-0.089538 1.135849 2.514980 0.000000 0.000000 0.000000 
-0.310570 1.133994 2.537796 0.000000 0.000000 0.000000 
-0.530826 1.149084 2.563824 0.000000 0.000000 0.000000 
-0.597919 1.144225 2.580865 0.000000 0.000000 0.000000 
-0.907774 1.137518 2.493281 0.000000 0.000000 0.000000 
-0.949539 1.140320 2.498085 0.000000 0.000000 0.000000 
-0.838615 1.132111 2.494129 0.000000 0.000000 0.000000 
-0.929377 1.145717 2.624177 0.000000 0.000000 0.000000 
-0.928582 1.144653 2.621895 0.000000 0.000000 0.000000 
-0.997382 1.141905 2.631386 0.000000 0.000000 0.000000 
-0.957280 1.140723 2.372087 0.000000 0.000000 0.000000 
-1.436809 1.183669 2.550264 0.000000 0.000000 0.000000 
-2.451639 1.703702 3.945317 0.000000 0.000000 0.000000 
-2.506109 1.707250 3.962797 0.000000 0.000000 0.000000 
1.233643 1.313488 3.363741 0.000000 0.000000 0.000000 
1.215104 1.312606 3.361805 0.000000 0.000000 0.000000 
0.841502 1.294654 3.444168 0.000000 0.000000 0.000000 
0.613777 1.286272 3.486841 0.000000 0.000000 0.000000 
0.525328 1.336944 3.484819 0.000000 0.000000 0.000000 
0.046642 1.065796 2.551941 0.000000 0.000000 0.000000 
0.014354 1.004062 2.563490 0.000000 0.000000 0.000000 
-0.202251 1.074477 2.573310 0.000000 0.000000 0.000000 
-0.171656 1.015337 2.594336 0.000000 0.000000 0.000000 
-0.307840 1.037633 2.575900 0.000000 0.000000 0.000000 
-0.359531 1.077954 2.574632 0.000000 0.000000 0.000000 
-2.267443 1.571503 3.998219 0.000000 0.000000 0.000000 
-2.381142 1.548012 4.045963 0.000000 0.000000 0.000000 
-2.396419 1.611309 3.997207 0.000000 0.000000 0.000000 
-2.441899 1.621742 4.011693 0.000000 0.000000 0.000000 
-2.547552 1.663070 4.006278 0.000000 0.000000 0.000000 
-2.551644 1.602490 4.021788 0.000000 0.000000 0.000000 
-2.716703 1.683509 3.996864 0.000000 0.000000 0.000000 
-2.716703 1.683509 3.996864 0.000000 0.000000 0.000000 
-2.574304 1.612846 4.018287 0.000000 0.000000 0.000000 
-2.574304 1.612846 4.018287 0.000000 0.000000 0.000000 
1.774320 1.536077 4.426335 0.000000 0.000000 0.000000 
1.859052 1.473655 4.430592 0.000000 0.000000 0.000000 
1.100082 1.166743 3.423701 0.000000 0.000000 0.000000 
0.906055 1.197508 3.462061 0.000000 0.000000 0.000000 
0.687666 1.196981 3.499142 0.000000 0.000000 0.000000 
0.495674 1.226184 3.522259 0.000000 0.000000 0.000000 
0.502554 1.212351 3.522891 0.000000 0.000000 0.000000 
0.520620 1.172292 3.533482 0.000000 0.000000 0.000000 
0.199128 0.898994 2.572284 0.000000 0.000000 0.000000 
-0.738165 1.017428 2.641648 0.000000 0.000000 0.000000 
-0.820594 0.999212 2.660148 0.000000 0.000000 0.000000 
-1.988815 1.337430 3.833867 0.000000 0.000000 0.000000 
-2.315834 1.521295 4.033242 0.000000 0.000000 0.000000 
-2.221171 1.444401 4.075772 0.000000 0.000000 0.000000 
-2.356672 1.393468 4.119922 0.000000 0.000000 0.000000 
-2.356463 1.393648 4.119924 0.000000 0.000000 0.000000 
-2.518667 1.474549 4.100905 0.000000 0.000000 0.000000 
-2.518589 1.474380 4.100415 0.000000 0.000000 0.000000 
-2.538674 1.428502 4.128706 0.000000 0.000000 0.000000 
-2.688730 1.502295 4.108699 0.000000 0.000000 0.000000 
1.863673 1.435835 4.453068 0.000000 0.000000 0.000000 
1.802074 1.352105 4.498601 0.000000 0.000000 0.000000 
1.632558 1.377220 4.521791 0.000000 0.000000 0.000000 
1.249053 1.104933 3.419861 0.000000 0.000000 0.000000 
1.249053 1.104933 3.419861 0.000000 0.000000 0.000000 
1.238760 1.061943 3.432986 0.000000 0.000000 0.000000 
1.194573 1.060863 3.440922 0.000000 0.000000 0.000000 
1.121126 1.107850 3.438625 0.000000 0.000000 0.000000 
1.103970 1.107117 3.442557 0.000000 0.000000 0.000000 
1.103970 1.107117 3.442557 0.000000 0.000000 0.000000 
1.138732 1.046815 3.460384 0.000000 0.000000 0.000000 
1.119284 1.064888 3.450939 0.000000 0.000000 0.000000 
1.118228 1.063496 3.447736 0.000000 0.000000 0.000000 
1.100560 1.027080 3.463511 0.000000 0.000000 0.000000 
0.857258 1.039310 3.510359 0.000000 0.000000 0.000000 
0.857340 1.039922 3.512003 0.000000 0.000000 0.000000 
0.674567 1.062738 3.527052 0.000000 0.000000 0.000000 
0.645774 1.092759 3.529716 0.000000 0.000000 0.000000 
0.514124 1.157270 3.534895 0.000000 0.000000 0.000000 
-1.948768 1.278968 3.876445 0.000000 0.000000 0.000000 
-1.934817 1.246402 3.891591 0.000000 0.000000 0.000000 
-2.185184 1.276938 4.158077 0.000000 0.000000 0.000000 
-2.257507 1.337401 4.148296 0.000000 0.000000 0.000000 
-2.257507 1.337401 4.148296 0.000000 0.000000 0.000000 
-2.361178 1.258073 4.201846 0.000000 0.000000 0.000000 
-2.469419 1.397958 4.147605 0.000000 0.000000 0.000000 
-2.488114 1.352503 4.168384 0.000000 0.000000 0.000000 
-2.617753 1.397016 4.180562 0.000000 0.000000 0.000000 
-2.679703 1.385848 4.185105 0.000000 0.000000 0.000000 
-2.686255 1.358679 4.197437 0.000000 0.000000 0.000000 
-2.686885 1.337757 4.210908 0.000000 0.000000 0.000000 
-2.752853 1.282500 4.240849 0.000000 0.000000 0.000000 
2.084759 1.174190 4.473998 0.000000 0.000000 0.000000 
1.997230 1.220906 4.515881 0.000000 0.000000 0.000000 
1.895648 1.271603 4.518689 0.000000 0.000000 0.000000 
1.869377 1.208879 4.547456 0.000000 0.000000 0.000000 
1.125615 0.964678 3.481396 0.000000 0.000000 0.000000 
1.167476 0.927202 3.477884 0.000000 0.000000 0.000000 
1.113561 0.916653 3.491981 0.000000 0.000000 0.000000 
0.957271 0.916194 3.525191 0.000000 0.000000 0.000000 
